ply
format ascii 1.0
comment rm_nav deskew viewer export
element vertex 240
property float x
property float y
property float z
property float intensity
property float relative_time_s
end_header
6.000000 -3.000000 0.000000 0.000000 0.000000
6.015745 -2.974895 0.007885 1.066946 0.000418
6.031315 -2.949791 0.015757 2.133891 0.000837
6.046540 -2.924686 0.023605 3.200837 0.001255
6.061250 -2.899582 0.031417 4.267782 0.001674
6.075284 -2.874477 0.039179 5.334728 0.002092
6.088487 -2.849372 0.046881 6.401674 0.002510
6.100710 -2.824268 0.054509 7.468619 0.002929
6.111823 -2.799163 0.062053 8.535564 0.003347
6.121699 -2.774059 0.069501 9.602510 0.003766
6.130232 -2.748954 0.076840 10.669456 0.004184
6.137325 -2.723850 0.084060 11.736402 0.004603
6.142900 -2.698745 0.091149 12.803348 0.005021
6.146897 -2.673640 0.098097 13.870293 0.005439
6.149272 -2.648536 0.104892 14.937239 0.005858
6.149996 -2.623431 0.111524 16.004185 0.006276
6.149065 -2.598326 0.117982 17.071129 0.006695
6.146486 -2.573222 0.124257 18.138077 0.007113
6.142288 -2.548117 0.130339 19.205021 0.007531
6.136519 -2.523013 0.136218 20.271967 0.007950
6.129241 -2.497908 0.141885 21.338913 0.008368
6.120537 -2.472804 0.147332 22.405857 0.008787
6.110498 -2.447699 0.152550 23.472803 0.009205
6.099241 -2.422594 0.157530 24.539749 0.009623
6.086886 -2.397490 0.162266 25.606695 0.010042
6.073573 -2.372385 0.166749 26.673639 0.010460
6.059446 -2.347281 0.170973 27.740585 0.010879
6.044662 -2.322176 0.174931 28.807531 0.011297
6.029385 -2.297071 0.178617 29.874477 0.011715
6.013783 -2.271966 0.182026 30.941422 0.012134
5.998028 -2.246862 0.185151 32.008369 0.012552
5.982296 -2.221757 0.187988 33.075314 0.012971
5.966760 -2.196653 0.190534 34.142258 0.013389
5.951590 -2.171548 0.192783 35.209202 0.013808
5.936955 -2.146443 0.194732 36.276154 0.014226
5.923017 -2.121339 0.196378 37.343098 0.014644
5.909929 -2.096234 0.197719 38.410042 0.015063
5.897837 -2.071130 0.198753 39.476986 0.015481
5.886873 -2.046025 0.199478 40.543934 0.015900
5.877159 -2.020921 0.199892 41.610878 0.016318
5.868801 -1.995816 0.199996 42.677826 0.016736
5.861894 -1.970712 0.199788 43.744770 0.017155
5.856513 -1.945607 0.199270 44.811714 0.017573
5.852716 -1.920502 0.198443 45.878662 0.017992
5.850547 -1.895397 0.197306 46.945606 0.018410
5.850029 -1.870293 0.195863 48.012550 0.018828
5.851168 -1.845189 0.194116 49.079498 0.019247
5.853951 -1.820084 0.192066 50.146446 0.019665
5.858347 -1.794979 0.189718 51.213390 0.020084
5.864310 -1.769875 0.187075 52.280334 0.020502
5.871770 -1.744770 0.184141 53.347279 0.020921
5.880648 -1.719665 0.180921 54.414227 0.021339
5.890844 -1.694561 0.177419 55.481171 0.021757
5.902246 -1.669456 0.173642 56.548119 0.022176
5.914728 -1.644352 0.169594 57.615063 0.022594
5.928153 -1.619247 0.165283 58.682007 0.023013
5.942370 -1.594142 0.160715 59.748955 0.023431
5.957225 -1.569038 0.155897 60.815899 0.023849
5.972552 -1.543933 0.150836 61.882843 0.024268
5.988183 -1.518829 0.145542 62.949791 0.024686
6.003942 -1.493724 0.140020 64.016739 0.025105
6.019660 -1.468619 0.134281 65.083679 0.025523
6.035161 -1.443515 0.128334 66.150627 0.025941
6.050272 -1.418410 0.122186 67.217575 0.026360
6.064829 -1.393306 0.115849 68.284515 0.026778
6.078669 -1.368201 0.109332 69.351463 0.027197
6.091640 -1.343096 0.102644 70.418404 0.027615
6.103598 -1.317992 0.095797 71.485359 0.028033
6.114413 -1.292887 0.088801 72.552307 0.028452
6.123962 -1.267783 0.081667 73.619247 0.028870
6.132143 -1.242678 0.074406 74.686195 0.029289
6.138863 -1.217573 0.067030 75.753136 0.029707
6.144049 -1.192469 0.059549 76.820084 0.030126
6.147645 -1.167364 0.051975 77.887024 0.030544
6.149608 -1.142260 0.044321 78.953972 0.030962
6.149919 -1.117155 0.036598 80.020920 0.031381
6.148573 -1.092050 0.028818 81.087868 0.031799
6.145587 -1.066946 0.020993 82.154816 0.032218
6.140991 -1.041841 0.013135 83.221756 0.032636
6.134838 -1.016737 0.005257 84.288704 0.033054
6.127195 -0.991632 -0.002629 85.355652 0.033473
6.118148 -0.966527 -0.010511 86.422592 0.033891
6.107794 -0.941423 -0.018377 87.489540 0.034310
6.096250 -0.916318 -0.026214 88.556480 0.034728
6.083642 -0.891214 -0.034010 89.623428 0.035146
6.070111 -0.866109 -0.041754 90.690376 0.035565
6.055804 -0.841004 -0.049432 91.757324 0.035983
6.040882 -0.815900 -0.057034 92.824272 0.036402
6.025507 -0.790795 -0.064547 93.891212 0.036820
6.009851 -0.765691 -0.071960 94.958160 0.037238
5.994086 -0.740586 -0.079261 96.025101 0.037657
5.978387 -0.715482 -0.086438 97.092049 0.038075
5.962926 -0.690377 -0.093481 98.158997 0.038494
5.947874 -0.665272 -0.100379 99.225945 0.038912
5.933399 -0.640167 -0.107121 100.292892 0.039331
5.919660 -0.615063 -0.113696 101.359833 0.039749
5.906807 -0.589959 -0.120095 102.426781 0.040167
5.894985 -0.564854 -0.126306 103.493721 0.040586
5.884324 -0.539749 -0.132322 104.560669 0.041004
5.874938 -0.514645 -0.138131 105.627617 0.041423
5.866936 -0.489540 -0.143726 106.694557 0.041841
5.860403 -0.464435 -0.149097 107.761505 0.042259
5.855412 -0.439331 -0.154237 108.828453 0.042678
5.852020 -0.414226 -0.159136 109.895401 0.043096
5.850262 -0.389122 -0.163789 110.962341 0.043515
5.850159 -0.364017 -0.168186 112.029289 0.043933
5.851710 -0.338912 -0.172322 113.096237 0.044351
5.854901 -0.313808 -0.176190 114.163177 0.044770
5.859694 -0.288703 -0.179784 115.230125 0.045188
5.866037 -0.263599 -0.183099 116.297066 0.045607
5.873860 -0.238494 -0.186129 117.364014 0.046025
5.883078 -0.213389 -0.188870 118.430969 0.046444
5.893586 -0.188285 -0.191316 119.497910 0.046862
5.905270 -0.163180 -0.193466 120.564857 0.047280
5.918001 -0.138076 -0.195314 121.631798 0.047699
5.931639 -0.112972 -0.196859 122.698746 0.048117
5.946031 -0.087866 -0.198098 123.765686 0.048536
5.961019 -0.062762 -0.199029 124.832634 0.048954
5.976438 -0.037658 -0.199650 125.899582 0.049372
5.992117 -0.012553 -0.199961 126.966522 0.049791
6.007883 0.012552 -0.199961 128.033478 0.050209
6.023562 0.037656 -0.199650 129.100418 0.050628
6.038981 0.062761 -0.199029 130.167358 0.051046
6.053970 0.087865 -0.198098 131.234299 0.051464
6.068362 0.112970 -0.196859 132.301254 0.051883
6.081999 0.138075 -0.195314 133.368210 0.052301
6.094730 0.163180 -0.193466 134.435150 0.052720
6.106414 0.188285 -0.191316 135.502090 0.053138
6.116923 0.213388 -0.188870 136.569031 0.053556
6.126140 0.238494 -0.186129 137.635986 0.053975
6.133963 0.263597 -0.183099 138.702927 0.054393
6.140306 0.288702 -0.179784 139.769882 0.054812
6.145099 0.313807 -0.176190 140.836807 0.055230
6.148290 0.338912 -0.172322 141.903763 0.055649
6.149841 0.364017 -0.168186 142.970718 0.056067
6.149737 0.389121 -0.163789 144.037659 0.056485
6.147980 0.414226 -0.159136 145.104614 0.056904
6.144587 0.439330 -0.154237 146.171539 0.057322
6.139596 0.464435 -0.149097 147.238495 0.057741
6.133065 0.489539 -0.143726 148.305435 0.058159
6.125062 0.514644 -0.138131 149.372391 0.058577
6.115678 0.539748 -0.132322 150.439331 0.058996
6.105016 0.564853 -0.126306 151.506271 0.059414
6.093193 0.589958 -0.120095 152.573227 0.059833
6.080341 0.615062 -0.113696 153.640167 0.060251
6.066601 0.640167 -0.107121 154.707123 0.060669
6.052126 0.665271 -0.100379 155.774048 0.061088
6.037074 0.690376 -0.093481 156.841003 0.061506
6.021614 0.715481 -0.086438 157.907944 0.061925
6.005914 0.740585 -0.079261 158.974899 0.062343
5.990149 0.765690 -0.071960 160.041840 0.062762
5.974492 0.790794 -0.064547 161.108780 0.063180
5.959117 0.815900 -0.057034 162.175735 0.063598
5.944195 0.841004 -0.049432 163.242676 0.064017
5.929889 0.866109 -0.041754 164.309631 0.064435
5.916358 0.891213 -0.034010 165.376572 0.064854
5.903750 0.916317 -0.026214 166.443512 0.065272
5.892206 0.941422 -0.018377 167.510452 0.065690
5.881852 0.966527 -0.010511 168.577408 0.066109
5.872804 0.991631 -0.002629 169.644348 0.066527
5.865162 1.016736 0.005257 170.711304 0.066946
5.859009 1.041840 0.013135 171.778244 0.067364
5.854414 1.066945 0.020993 172.845184 0.067782
5.851427 1.092050 0.028818 173.912140 0.068201
5.850081 1.117154 0.036598 174.979080 0.068619
5.850392 1.142260 0.044321 176.046021 0.069038
5.852356 1.167364 0.051975 177.112961 0.069456
5.855950 1.192468 0.059549 178.179916 0.069874
5.861137 1.217573 0.067030 179.246857 0.070293
5.867858 1.242677 0.074406 180.313812 0.070711
5.876038 1.267782 0.081668 181.380753 0.071130
5.885588 1.292886 0.088801 182.447693 0.071548
5.896402 1.317991 0.095797 183.514648 0.071967
5.908360 1.343096 0.102644 184.581589 0.072385
5.921331 1.368200 0.109332 185.648544 0.072803
5.935171 1.393305 0.115849 186.715469 0.073222
5.949728 1.418410 0.122186 187.782425 0.073640
5.964839 1.443514 0.128334 188.849365 0.074059
5.980339 1.468619 0.134281 189.916321 0.074477
5.996058 1.493723 0.140020 190.983276 0.074895
6.011818 1.518828 0.145542 192.050201 0.075314
6.027449 1.543931 0.150836 193.117157 0.075732
6.042776 1.569037 0.155897 194.184097 0.076151
6.057630 1.594141 0.160715 195.251053 0.076569
6.071848 1.619246 0.165283 196.317993 0.076987
6.085272 1.644351 0.169594 197.384933 0.077406
6.097755 1.669456 0.173642 198.451889 0.077824
6.109157 1.694560 0.177419 199.518829 0.078243
6.119352 1.719665 0.180921 200.585785 0.078661
6.128230 1.744770 0.184141 201.652710 0.079080
6.135691 1.769874 0.187075 202.719666 0.079498
6.141652 1.794978 0.189718 203.786606 0.079916
6.146049 1.820083 0.192066 204.853561 0.080335
6.148832 1.845187 0.194116 205.920502 0.080753
6.149971 1.870292 0.195863 206.987442 0.081172
6.149453 1.895398 0.197306 208.054398 0.081590
6.147284 1.920502 0.198443 209.121338 0.082008
6.143488 1.945606 0.199270 210.188293 0.082427
6.138106 1.970710 0.199788 211.255234 0.082845
6.131198 1.995816 0.199996 212.322174 0.083264
6.122842 2.020920 0.199892 213.389114 0.083682
6.113127 2.046025 0.199478 214.456070 0.084100
6.102164 2.071129 0.198753 215.523010 0.084519
6.090072 2.096234 0.197719 216.589966 0.084937
6.076983 2.121338 0.196378 217.656906 0.085356
6.063045 2.146443 0.194732 218.723846 0.085774
6.048410 2.171548 0.192783 219.790802 0.086192
6.033240 2.196652 0.190534 220.857742 0.086611
6.017704 2.221757 0.187988 221.924683 0.087029
6.001972 2.246861 0.185151 222.991623 0.087448
5.986217 2.271966 0.182026 224.058578 0.087866
5.970615 2.297070 0.178617 225.125519 0.088285
5.955338 2.322176 0.174931 226.192474 0.088703
5.940555 2.347281 0.170973 227.259415 0.089121
5.926428 2.372384 0.166749 228.326355 0.089540
5.913113 2.397489 0.162266 229.393311 0.089958
5.900759 2.422593 0.157530 230.460251 0.090377
5.889501 2.447698 0.152550 231.527206 0.090795
5.879464 2.472803 0.147332 232.594131 0.091213
5.870759 2.497908 0.141885 233.661087 0.091632
5.863482 2.523012 0.136218 234.728027 0.092050
5.857712 2.548116 0.130339 235.794983 0.092469
5.853514 2.573221 0.124257 236.861938 0.092887
5.850936 2.598325 0.117982 237.928864 0.093305
5.850003 2.623430 0.111523 238.995819 0.093724
5.850729 2.648536 0.104892 240.062759 0.094142
5.853103 2.673639 0.098097 241.129715 0.094561
5.857100 2.698745 0.091149 242.196655 0.094979
5.862677 2.723848 0.084060 243.263596 0.095397
5.869769 2.748953 0.076840 244.330536 0.095816
5.878301 2.774057 0.069501 245.397491 0.096234
5.888178 2.799162 0.062053 246.464447 0.096653
5.899290 2.824267 0.054509 247.531372 0.097071
5.911514 2.849371 0.046881 248.598328 0.097490
5.924716 2.874475 0.039179 249.665268 0.097908
5.938749 2.899581 0.031417 250.732224 0.098326
5.953460 2.924685 0.023605 251.799164 0.098745
5.968685 2.949790 0.015757 252.866104 0.099163
5.984256 2.974895 0.007885 253.933044 0.099582
6.000000 3.000000 -0.000000 255.000000 0.100000
